#   X	          Y	         Z	   Intensity
-0.63655102	-0.90620399	0.93308997	0.314824
-0.63459802	-0.90342700	0.93257099	0.309697
-0.63276702	-0.90077198	0.93223602	0.303838
-0.63111901	-0.89845300	0.93217498	0.301152
-0.62925702	-0.89582801	0.93180799	0.306523
-0.62751800	-0.89332598	0.93162501	0.309453
-0.62599200	-0.89115900	0.93171698	0.312139
-0.62480199	-0.88945001	0.93229699	0.312139
-0.62306201	-0.88697797	0.93205303	0.313848
-0.62132299	-0.88450599	0.93183899	0.310185
-0.61946100	-0.88188201	0.93141198	0.306767
-0.61796600	-0.87971503	0.93150300	0.307256
-0.61674500	-0.87800598	0.93205303	0.312139
-0.61555499	-0.87629700	0.93260199	0.317266
-0.61433399	-0.87458801	0.93312103	0.324102
-0.61302203	-0.87272602	0.93351698	0.325322
-0.61140400	-0.87040699	0.93339503	0.325322
-0.60978699	-0.86808801	0.93327302	0.325322
-0.60816997	-0.86579901	0.93315101	0.327520
-0.60664397	-0.86363202	0.93321198	0.334600
-0.60481298	-0.86103803	0.93275499	0.337041
-0.60331702	-0.85887098	0.93275499	0.339483
-0.60179102	-0.85673499	0.93278497	0.338994
-0.60038799	-0.85472101	0.93296802	0.337041
-0.59877002	-0.85243201	0.93281603	0.340703
-0.59715301	-0.85014302	0.93263203	0.343145
-0.59565699	-0.84797698	0.93263203	0.348028
-0.59403998	-0.84568799	0.93247998	0.352178
-0.59233099	-0.84324598	0.93211401	0.359014
-0.59062201	-0.84080499	0.93177801	0.359014
-0.58921802	-0.83882099	0.93193102	0.363165
-0.58760101	-0.83653301	0.93171698	0.365606
-0.58610499	-0.83439600	0.93168598	0.361944
-0.58460999	-0.83226001	0.93165600	0.363653
-0.58302301	-0.82997102	0.93144202	0.362432
-0.58140600	-0.82768202	0.93122900	0.365362
-0.57981902	-0.82539397	0.93101501	0.368536
-0.57832301	-0.82328802	0.93095398	0.369268
-0.57670599	-0.82099903	0.93071002	0.374640
-0.57511902	-0.81874102	0.93046600	0.375860
-0.57353199	-0.81645203	0.93025202	0.375860
-0.57212800	-0.81446803	0.93031299	0.373907
-0.57054102	-0.81221002	0.93006903	0.374640
-0.56913799	-0.81022602	0.93013000	0.382452
-0.56767303	-0.80812103	0.93003798	0.381231
-0.56648302	-0.80644202	0.93043500	0.380743
-0.56520098	-0.80461103	0.93067902	0.383185
-0.56361401	-0.80235302	0.93040502	0.384405
-0.56221002	-0.80036902	0.93046600	0.388067
-0.56062299	-0.79811102	0.93016100	0.388067
-0.55915803	-0.79600501	0.93003798	0.390021
-0.55787700	-0.79417402	0.93025202	0.388800
-0.55680799	-0.79264802	0.93080097	0.390021
-0.55571002	-0.79112202	0.93132001	0.395148
-0.55442798	-0.78929102	0.93153399	0.401740
-0.55305499	-0.78733802	0.93153399	0.413947
-0.55168200	-0.78538501	0.93156397	0.418585
-0.55061299	-0.78382897	0.93208301	0.420539
-0.54942298	-0.78218102	0.93244898	0.425666
-0.54826403	-0.78050202	0.93278497	0.436896
-0.71455401	-1.01460302	0.93833899	0.232059
-0.71376002	-1.01347399	0.93974298	0.242802
-0.71174598	-1.01060498	0.93952900	0.248905
-0.70948797	-1.00743103	0.93901098	0.258427
-0.70738202	-1.00437903	0.93861401	0.263066
-0.70533800	-1.00151098	0.93836999	0.262577
-0.70356798	-0.99897802	0.93843102	0.262089
-0.70164502	-0.99626201	0.93833899	0.265995
-0.69953901	-0.99324000	0.93791199	0.266972
-0.69728100	-0.99006701	0.93736303	0.264530
-0.69526702	-0.98722798	0.93708801	0.265263
-0.69328302	-0.98435998	0.93678302	0.264775
-0.69114703	-0.98136902	0.93635601	0.268925
-0.68904102	-0.97834802	0.93589801	0.280644
-0.68724102	-0.97581500	0.93589801	0.287968
-0.68534899	-0.97312897	0.93574500	0.289433
-0.68345600	-0.97044402	0.93556201	0.293339
-0.68147302	-0.96760601	0.93522602	0.300420
-0.67991602	-0.96540803	0.93550098	0.299687
-0.67835999	-0.96318102	0.93577600	0.300420
-0.67680401	-0.96098298	0.93605000	0.301396
-0.67533898	-0.95890802	0.93644702	0.303593
-0.67399597	-0.95701599	0.93699598	0.306035
-0.67268401	-0.95512402	0.93757600	0.302617
-0.67100501	-0.95277399	0.93763697	0.302617
-0.66914397	-0.95008898	0.93742400	0.304326
-0.66737401	-0.94755602	0.93736303	0.304814
-0.66560400	-0.94505298	0.93727100	0.308476
-0.66383398	-0.94252002	0.93717998	0.308476
-0.66197199	-0.93986499	0.93693501	0.309453
-0.66020203	-0.93736303	0.93681300	0.310674
-0.65864599	-0.93516499	0.93702698	0.313603
-0.65687603	-0.93266302	0.93690503	0.313115
-0.65513599	-0.93016100	0.93678302	0.312627
-0.65324402	-0.92750502	0.93650800	0.317021
-0.65150499	-0.92500299	0.93638599	0.324590
-0.64985698	-0.92265302	0.93638599	0.321904
-0.64796400	-0.91999799	0.93611097	0.317266
-0.64631701	-0.91764802	0.93611097	0.316289
-0.64457703	-0.91517597	0.93595898	0.321660
-0.64280701	-0.91267401	0.93577600	0.324102
-0.64051801	-0.90940899	0.93483001	0.322881
-0.63822901	-0.90617400	0.93385297	0.318242
-0.63615400	-0.90321398	0.93321198	0.308965
-0.63441497	-0.90074199	0.93302900	0.304570
-0.63267499	-0.89827001	0.93281603	0.301152
-0.63093603	-0.89579803	0.93260199	0.305303
-0.62916601	-0.89332598	0.93241900	0.308232
-0.62733501	-0.89067101	0.93202198	0.309941
-0.62589997	-0.88865697	0.93229699	0.309453
-0.62449598	-0.88664198	0.93254101	0.304814
-0.62284899	-0.88432300	0.93244898	0.304570
-0.62110901	-0.88185102	0.93223602	0.305058
-0.61949199	-0.87953198	0.93214399	0.309209
-0.61796600	-0.87739599	0.93220502	0.315557
-0.61665303	-0.87553400	0.93260199	0.320928
-0.61564600	-0.87410003	0.93345600	0.327031
-0.61445600	-0.87239099	0.93400598	0.328740
-0.61293000	-0.87025499	0.93403602	0.329961
-0.61109900	-0.86763000	0.93360901	0.330694
-0.60948199	-0.86531103	0.93348700	0.331914
-0.60816997	-0.86347997	0.93385297	0.336065
-0.60685700	-0.86161798	0.93418902	0.335332
-0.60493499	-0.85887098	0.93357801	0.335332
-0.60340899	-0.85670501	0.93360901	0.334112
-0.60200500	-0.85472101	0.93376201	0.332403
-0.60038799	-0.85240197	0.93360901	0.334844
-0.59843397	-0.84965497	0.93296802	0.336553
-0.59672499	-0.84721398	0.93263203	0.343145
-0.59520000	-0.84507799	0.93263203	0.349737
-0.59361303	-0.84278899	0.93244898	0.352911
-0.59208697	-0.84065199	0.93244898	0.355352
-0.59037799	-0.83821100	0.93208301	0.356085
-0.58897400	-0.83622700	0.93223602	0.359014
-0.58747900	-0.83409101	0.93217498	0.358526
-0.58616602	-0.83226001	0.93247998	0.356085
-0.58467102	-0.83012402	0.93244898	0.361700
-0.58296198	-0.82768202	0.93205303	0.364141
-0.58125299	-0.82527202	0.93165600	0.366827
-0.57975799	-0.82313502	0.93162501	0.368536
-0.57826197	-0.82099903	0.93153399	0.373907
-0.57676703	-0.81889302	0.93147302	0.375860
-0.57536298	-0.81691003	0.93156397	0.375860
-0.57386798	-0.81477398	0.93150300	0.371954
-0.57215899	-0.81236303	0.93107599	0.369512
-0.57057202	-0.81010401	0.93080097	0.376837
-0.56938201	-0.80842602	0.93122900	0.381231
-0.56788599	-0.80628997	0.93110698	0.382452
-0.56651300	-0.80433702	0.93119800	0.385138
-0.56501800	-0.80220002	0.93107599	0.387579
-0.56364399	-0.80024701	0.93113703	0.383917
-0.56236303	-0.79841602	0.93135101	0.382940
-0.56095898	-0.79646301	0.93138099	0.384894
-0.55967700	-0.79463202	0.93159503	0.390021
-0.55818200	-0.79252601	0.93147302	0.393927
-0.55680799	-0.79057300	0.93150300	0.395880
-0.55552697	-0.78874201	0.93168598	0.397833
-0.55424500	-0.78691101	0.93186998	0.406867
-0.55308503	-0.78526300	0.93223602	0.411505
-0.55180401	-0.78343201	0.93241900	0.414679
-0.55052203	-0.78163099	0.93260199	0.421271
-0.54923999	-0.77980000	0.93278497	0.432258
-0.71421802	-1.01148999	0.93382299	0.228641
-0.71580499	-1.01371801	0.93833899	0.246464
-0.71400499	-1.01118505	0.93839997	0.249393
-0.71186799	-1.00813305	0.93803400	0.254520
-0.70960999	-1.00495899	0.93751502	0.263554
-0.70771801	-1.00224304	0.93742400	0.265751
-0.70567298	-0.99940503	0.93717998	0.265019
-0.70356798	-0.99638402	0.93678302	0.264530
-0.70164502	-0.99366802	0.93669099	0.262333
-0.69975299	-0.99098200	0.93656898	0.260868
-0.69761699	-0.98796099	0.93614203	0.262821
-0.69560200	-0.98512298	0.93586701	0.261112
-0.69346601	-0.98210102	0.93544000	0.264286
-0.69123799	-0.97892803	0.93485999	0.276982
-0.68934602	-0.97627300	0.93470800	0.290654
-0.68754601	-0.97373998	0.93467700	0.299199
-0.68598902	-0.97151202	0.93498200	0.293828
-0.68409699	-0.96882600	0.93479902	0.287968
-0.68220502	-0.96614099	0.93464702	0.290166
-0.68019098	-0.96330303	0.93431097	0.296757
-0.67875701	-0.96125799	0.93470800	0.301396
-0.67741400	-0.95936602	0.93528700	0.304570
-0.67619300	-0.95762599	0.93598902	0.306279
-0.67488098	-0.95570397	0.93653899	0.307744
-0.67320299	-0.95335400	0.93663001	0.304326
-0.67164600	-0.95115697	0.93687397	0.303838
-0.67009002	-0.94892901	0.93711901	0.306035
-0.66832000	-0.94642597	0.93705702	0.309209
-0.66654998	-0.94392401	0.93696600	0.315068
-0.66465801	-0.94123799	0.93672198	0.315068
-0.66279602	-0.93858302	0.93647802	0.314580
-0.66090399	-0.93592799	0.93620300	0.317754
-0.65925598	-0.93357801	0.93626398	0.317021
-0.65748602	-0.93107599	0.93614203	0.315312
-0.65562397	-0.92842102	0.93586701	0.317754
-0.65373200	-0.92576599	0.93559301	0.324590
-0.65199298	-0.92326403	0.93544000	0.324590
-0.65022302	-0.92076099	0.93531799	0.320684
-0.64857501	-0.91844201	0.93531799	0.318486
-0.64671302	-0.91578698	0.93501300	0.321172
-0.64503503	-0.91346699	0.93501300	0.321904
-0.64274597	-0.91020203	0.93406701	0.321904
-0.64045697	-0.90696698	0.93308997	0.317266
-0.63859600	-0.90431201	0.93275499	0.313115
-0.63682598	-0.90183997	0.93257099	0.306279
-0.63508600	-0.89936799	0.93238801	0.302373
-0.63334697	-0.89689600	0.93217498	0.300664
-0.63148499	-0.89424098	0.93183899	0.303838
-0.62962300	-0.89161700	0.93144202	0.304814
-0.62809801	-0.88945001	0.93156397	0.306523
-0.62657201	-0.88728303	0.93165600	0.306523
-0.62461901	-0.88450599	0.93110698	0.307500
-0.62275702	-0.88191199	0.93071002	0.305058
-0.62123102	-0.87974501	0.93080097	0.307988
-0.61982697	-0.87773103	0.93101501	0.313359
-0.61839300	-0.87571698	0.93125898	0.316289
-0.61720300	-0.87400800	0.93177801	0.322393
-0.61610401	-0.87245202	0.93247998	0.323613
-0.61479199	-0.87058997	0.93287700	0.324102
-0.61326599	-0.86842299	0.93290699	0.327031
-0.61173999	-0.86628699	0.93296802	0.330694
-0.61012298	-0.86396801	0.93284601	0.331914
-0.60847503	-0.86167902	0.93272400	0.335332
-0.60676599	-0.85923803	0.93241900	0.336065
-0.60523999	-0.85707098	0.93244898	0.338506
-0.60371399	-0.85493499	0.93244898	0.338994
-0.60231000	-0.85292101	0.93263203	0.342657
-0.60069299	-0.85063201	0.93247998	0.340215
-0.59873998	-0.84791601	0.93183899	0.341436
-0.59712201	-0.84559602	0.93165600	0.346807
-0.59550500	-0.84330702	0.93147302	0.352422
-0.59400898	-0.84117103	0.93147302	0.357305
-0.59230000	-0.83876002	0.93113703	0.358526
-0.59077501	-0.83662403	0.93110698	0.360235
-0.58915699	-0.83433503	0.93089300	0.360235
-0.58775300	-0.83235198	0.93104601	0.359747
-0.58647197	-0.83048999	0.93132001	0.364385
-0.58485401	-0.82823199	0.93110698	0.366827
-0.58323699	-0.82594299	0.93089300	0.370489
-0.58174098	-0.82380700	0.93083203	0.372442
-0.58024597	-0.82170099	0.93077099	0.371221
-0.57853699	-0.81928998	0.93037403	0.374640
-0.57682800	-0.81684899	0.92997700	0.375860
-0.57524103	-0.81458998	0.92973298	0.377081
-0.57405102	-0.81291199	0.93016100	0.376593
-0.57276899	-0.81108099	0.93040502	0.374640
-0.57127398	-0.80897498	0.93031299	0.376837
-0.56965601	-0.80671698	0.93003798	0.376837
-0.56828302	-0.80473298	0.93009901	0.380011
-0.56687897	-0.80274999	0.93019098	0.382696
-0.56550598	-0.80079699	0.93022197	0.385138
-0.56410199	-0.79884303	0.93028301	0.390753
-0.56260699	-0.79670697	0.93016100	0.388800
-0.56123400	-0.79475403	0.93022197	0.387579
-0.55995202	-0.79292297	0.93040502	0.390753
-0.55876201	-0.79127502	0.93080097	0.396612
-0.55778497	-0.78987098	0.93150300	0.399786
-0.55659503	-0.78819299	0.93186998	0.403693
-0.55522197	-0.78623998	0.93186998	0.411505
-0.55384803	-0.78428602	0.93190002	0.413458
-0.55244398	-0.78233302	0.93190002	0.415412
-0.55116302	-0.78050202	0.93208301	0.418830
-0.55000299	-0.77885401	0.93244898	0.430549
-0.71666002	-1.01216102	0.93772900	0.235721
-0.71540803	-1.01042199	0.93855298	0.245487
-0.71348602	-1.00770605	0.93849200	0.252079
-0.71156299	-1.00498998	0.93839997	0.260136
-0.70942700	-1.00196803	0.93803400	0.262577
-0.70753503	-0.99928302	0.93794298	0.262577
-0.70548999	-0.99641401	0.93769801	0.263554
-0.70326197	-0.99324000	0.93714899	0.260868
-0.70124799	-0.99040198	0.93687397	0.259403
-0.69932598	-0.98768598	0.93675202	0.259892
-0.69743299	-0.98500103	0.93663001	0.265507
-0.69541901	-0.98216200	0.93635601	0.265995
-0.69316101	-0.97898901	0.93574500	0.269657
-0.69126898	-0.97630298	0.93559301	0.279667
-0.68971300	-0.97410601	0.93589801	0.283818
-0.68769801	-0.97126800	0.93559301	0.285283
-0.68568403	-0.96842998	0.93525702	0.284794
-0.68391401	-0.96589702	0.93522602	0.285527
-0.68211401	-0.96336401	0.93519598	0.286992
-0.68043500	-0.96101397	0.93531799	0.292363
-0.67900097	-0.95896900	0.93574500	0.295048
-0.67765802	-0.95704699	0.93629497	0.298955
-0.67652899	-0.95548999	0.93714899	0.302861
-0.67494202	-0.95329303	0.93739301	0.299687
-0.67329401	-0.95091200	0.93748498	0.298955
-0.67128003	-0.94810498	0.93711901	0.303349
-0.66951001	-0.94560200	0.93705702	0.306035
-0.66761798	-0.94291699	0.93681300	0.310674
-0.66606098	-0.94072002	0.93702698	0.311162
-0.66429102	-0.93821698	0.93693501	0.310674
-0.66252100	-0.93571502	0.93681300	0.310674
-0.66062897	-0.93305999	0.93656898	0.314336
-0.65898103	-0.93071002	0.93660003	0.313848
-0.65733302	-0.92835999	0.93663001	0.316533
-0.65544099	-0.92570502	0.93635601	0.322637
-0.65367103	-0.92323297	0.93623400	0.328740
-0.65180999	-0.92057800	0.93592799	0.325811
-0.65003997	-0.91807598	0.93577600	0.321904
-0.64827001	-0.91560400	0.93562299	0.320195
-0.64652997	-0.91310102	0.93547100	0.323125
-0.64433300	-0.91001898	0.93467700	0.321904
-0.64234900	-0.90721101	0.93418902	0.318486
-0.64048803	-0.90458697	0.93385297	0.314824
-0.63828999	-0.90150499	0.93305999	0.307500
-0.63621497	-0.89854401	0.93238801	0.300175
-0.63447601	-0.89607197	0.93217498	0.297734
-0.63270599	-0.89359999	0.93199199	0.303838
-0.63108802	-0.89128101	0.93193102	0.304814
-0.62931800	-0.88880903	0.93171698	0.307256
-0.62757897	-0.88633698	0.93150300	0.308965
-0.62605298	-0.88417101	0.93159503	0.312139
-0.62440503	-0.88188201	0.93150300	0.308721
-0.62278700	-0.87956202	0.93141198	0.306279
-0.62123102	-0.87739599	0.93150300	0.307988
-0.61982697	-0.87538099	0.93171698	0.312871
-0.61848402	-0.87355000	0.93211401	0.321172
-0.61717200	-0.87168902	0.93247998	0.325322
-0.61598200	-0.86997998	0.93302900	0.325322
-0.61476099	-0.86827099	0.93354797	0.324346
-0.61335802	-0.86625701	0.93376201	0.324834
-0.61161798	-0.86381501	0.93348700	0.327276
-0.61009198	-0.86164898	0.93351698	0.330694
-0.60856599	-0.85951197	0.93354797	0.331914
-0.60661298	-0.85676599	0.93293798	0.337285
-0.60490400	-0.85432398	0.93263203	0.340948
-0.60337800	-0.85218799	0.93263203	0.342657
-0.60185200	-0.85002100	0.93263203	0.348760
-0.60014302	-0.84758002	0.93232697	0.350469
-0.59861797	-0.84544402	0.93232697	0.351690
-0.59700000	-0.84315503	0.93214399	0.352911
-0.59538299	-0.84086603	0.93196100	0.358038
-0.59385699	-0.83872998	0.93193102	0.358526
-0.59245300	-0.83674598	0.93208301	0.359258
-0.59104902	-0.83476299	0.93223602	0.362188
-0.58933997	-0.83235198	0.93186998	0.364630
-0.58772302	-0.83006299	0.93165600	0.369268
-0.58610499	-0.82777399	0.93144202	0.369268
-0.58460999	-0.82566798	0.93138099	0.371710
-0.58290100	-0.82322699	0.93101501	0.374151
-0.58137500	-0.82112098	0.93095398	0.372442
-0.57978803	-0.81883198	0.93071002	0.372198
-0.57838398	-0.81687897	0.93080097	0.370977
-0.57676703	-0.81458998	0.93055701	0.375372
-0.57527202	-0.81248498	0.93049598	0.376593
-0.57377601	-0.81034899	0.93040502	0.374151
-0.57237202	-0.80839503	0.93046600	0.378302
-0.57096899	-0.80641198	0.93055701	0.379522
-0.56959498	-0.80445898	0.93061799	0.378790
-0.56828302	-0.80262798	0.93086201	0.378302
-0.56712300	-0.80094898	0.93122900	0.377569
-0.56572002	-0.79899597	0.93128997	0.377081
-0.56431597	-0.79701197	0.93135101	0.381964
-0.56272900	-0.79478502	0.93104601	0.385626
-0.56123400	-0.79267901	0.93092299	0.386358
-0.56004298	-0.79100001	0.93128997	0.386358
-0.55866998	-0.78904700	0.93132001	0.389044
-0.55738801	-0.78721601	0.93153399	0.396612
-0.55619800	-0.78553802	0.93186998	0.408331
-0.55500799	-0.78389001	0.93223602	0.409552
-0.55363500	-0.78193700	0.93226600	0.413703
-0.55213898	-0.77983099	0.93208301	0.420050
-0.55088800	-0.77800000	0.93226600	0.427863
-0.71620202	-1.00889599	0.93308997	0.224247
-0.71552998	-1.00794995	0.93464702	0.224247
-0.71687299	-1.00984204	0.93885797	0.238895
-0.71406603	-1.00587499	0.93760699	0.257450
-0.71336401	-1.00492895	0.93916303	0.257450
-0.70988500	-0.99998498	0.93699598	0.257939
-0.70762599	-0.99681097	0.93644702	0.259648
-0.70570397	-0.99412501	0.93635601	0.264530
-0.70381200	-0.99144000	0.93623400	0.264042
-0.70170599	-0.98838800	0.93583697	0.261357
-0.69978303	-0.98570299	0.93571502	0.265507
-0.69798303	-0.98316997	0.93571502	0.267948
-0.69596899	-0.98033100	0.93544000	0.271122
-0.69395399	-0.97749299	0.93513501	0.276005
-0.69181800	-0.97450298	0.93470800	0.281621
-0.68968201	-0.97151202	0.93425000	0.282841
-0.68778998	-0.96882600	0.93406701	0.286015
-0.68602002	-0.96629298	0.93406701	0.291875
-0.68455499	-0.96424901	0.93449402	0.291386
-0.68275499	-0.96174598	0.93446398	0.290410
-0.68132001	-0.95970201	0.93485999	0.291875
-0.67985499	-0.95762599	0.93528700	0.298222
-0.67863500	-0.95591700	0.93598902	0.305303
-0.67716998	-0.95384198	0.93638599	0.308721
-0.67540002	-0.95134002	0.93632501	0.305058
-0.67350799	-0.94868499	0.93611097	0.303838
-0.67170697	-0.94618201	0.93605000	0.305058
-0.67005903	-0.94380200	0.93611097	0.308965
-0.66838098	-0.94145203	0.93620300	0.310674
-0.66648901	-0.93879700	0.93595898	0.312871
-0.66471899	-0.93629497	0.93583697	0.313359
-0.66294903	-0.93379200	0.93574500	0.318242
-0.66105700	-0.93113703	0.93547100	0.321660
-0.65916401	-0.92848200	0.93519598	0.322637
-0.65730298	-0.92585802	0.93492103	0.328252
-0.65562397	-0.92350799	0.93495202	0.337041
-0.65397602	-0.92115802	0.93498200	0.333135
-0.65241998	-0.91899103	0.93516499	0.323125
-0.65065002	-0.91648901	0.93501300	0.317021
-0.64878798	-0.91386402	0.93470800	0.321416
-0.64701802	-0.91136199	0.93452501	0.323613
-0.64494300	-0.90843201	0.93391401	0.324834
-0.64262402	-0.90519702	0.93293798	0.321904
-0.64042699	-0.90208399	0.93214399	0.313115
-0.63856500	-0.89946002	0.93177801	0.301152
-0.63691700	-0.89714098	0.93174702	0.298955
-0.63539100	-0.89497399	0.93186998	0.306035
-0.63362098	-0.89250201	0.93165600	0.309453
-0.63188201	-0.89003003	0.93144202	0.311162
-0.63002002	-0.88740498	0.93107599	0.310185
-0.62825000	-0.88496399	0.93086201	0.310918
-0.62651098	-0.88249201	0.93061799	0.308721
-0.62464899	-0.87989801	0.93022197	0.308232
-0.62312299	-0.87773103	0.93031299	0.312139
-0.62190199	-0.87602198	0.93086201	0.315801
-0.62058997	-0.87416101	0.93125898	0.318730
-0.61915600	-0.87214702	0.93147302	0.324834
-0.61796600	-0.87046802	0.93202198	0.327764
-0.61665303	-0.86860698	0.93238801	0.327276
-0.61521900	-0.86659199	0.93260199	0.325567
-0.61369300	-0.86445600	0.93263203	0.327276
-0.61207598	-0.86213702	0.93251002	0.333135
-0.61042798	-0.85984802	0.93238801	0.335576
-0.60847503	-0.85710102	0.93177801	0.338994
-0.60673499	-0.85465997	0.93147302	0.342168
-0.60511798	-0.85237098	0.93132001	0.346807
-0.60371399	-0.85038799	0.93150300	0.353643
-0.60218799	-0.84825099	0.93150300	0.350713
-0.60066199	-0.84608501	0.93150300	0.350713
-0.59913599	-0.84394801	0.93150300	0.355352
-0.59773302	-0.84196502	0.93165600	0.359747
-0.59632897	-0.83998102	0.93180799	0.363409
-0.59449798	-0.83741802	0.93128997	0.362188
-0.59297198	-0.83528101	0.93125898	0.363409
-0.59135401	-0.83299297	0.93107599	0.367071
-0.58973700	-0.83070397	0.93086201	0.373663
-0.58845502	-0.82887298	0.93116802	0.372442
-0.58705097	-0.82688898	0.93128997	0.371221
-0.58543402	-0.82463098	0.93107599	0.373175
-0.58372498	-0.82222003	0.93067902	0.375616
-0.58210802	-0.81993097	0.93046600	0.374884
-0.58039898	-0.81752002	0.93003798	0.380255
-0.57868999	-0.81510901	0.92964202	0.380987
-0.57707202	-0.81285101	0.92939800	0.380255
-0.57578999	-0.81102002	0.92964202	0.379767
-0.57426500	-0.80891401	0.92958099	0.384649
-0.57267803	-0.80665600	0.92930597	0.385382
-0.57139599	-0.80482501	0.92954999	0.386603
-0.57008398	-0.80302399	0.92979401	0.387823
-0.56880200	-0.80119300	0.93000799	0.386603
-0.56739801	-0.79923999	0.93006903	0.385382
-0.56590301	-0.79713398	0.92994702	0.391485
-0.56419402	-0.79472399	0.92948902	0.394171
-0.56282002	-0.79277003	0.92952001	0.389532
-0.56172198	-0.79124498	0.93006903	0.383185
-0.56044000	-0.78941298	0.93028301	0.384405
-0.55906701	-0.78746003	0.93031299	0.390997
-0.55787700	-0.78581202	0.93067902	0.403204
-0.55668598	-0.78413397	0.93104601	0.407843
-0.55549598	-0.78245503	0.93138099	0.412238
-0.55421400	-0.78065503	0.93156397	0.418830
-0.55293298	-0.77885401	0.93174702	0.431281
-0.55165100	-0.77702302	0.93193102	0.448859
-0.71919298	-1.01036096	0.93772900	0.236942
-0.71781898	-1.00846899	0.93839997	0.243046
-0.71589702	-1.00575304	0.93833899	0.248661
-0.71388203	-1.00288403	0.93812603	0.256962
-0.71171600	-0.99986303	0.93772900	0.257939
-0.70945698	-0.99671900	0.93717998	0.255985
-0.70732099	-0.99369800	0.93678302	0.260868
-0.70530701	-0.99085999	0.93653899	0.263554
-0.70338398	-0.98814398	0.93641698	0.263066
-0.70112598	-0.98500103	0.93586701	0.266972
-0.69911200	-0.98216200	0.93556201	0.269169
-0.69731098	-0.97962999	0.93559301	0.271855
-0.69563299	-0.97724903	0.93574500	0.272831
-0.69361901	-0.97441101	0.93544000	0.279179
-0.69160497	-0.97157300	0.93513501	0.282841
-0.68980402	-0.96903998	0.93513501	0.284306
-0.68800402	-0.96653700	0.93510401	0.287480
-0.68611097	-0.96385199	0.93495202	0.294072
-0.68397498	-0.96086103	0.93446398	0.294560
-0.68217498	-0.95835900	0.93440199	0.294560
-0.68083203	-0.95646697	0.93498200	0.297246
-0.67961103	-0.95472699	0.93568403	0.305547
-0.67823797	-0.95286602	0.93623400	0.308965
-0.67668200	-0.95063800	0.93647802	0.310918
-0.67478901	-0.94798303	0.93626398	0.308232
-0.67301899	-0.94547999	0.93620300	0.305058
-0.67134100	-0.94313002	0.93626398	0.309209
-0.66953999	-0.94062799	0.93620300	0.311406
-0.66789198	-0.93827802	0.93626398	0.312383
-0.66633600	-0.93608099	0.93647802	0.314580
-0.66453600	-0.93357801	0.93635601	0.321172
-0.66288799	-0.93122900	0.93641698	0.319951
-0.66108698	-0.92875701	0.93629497	0.319463
-0.65910298	-0.92594898	0.93586701	0.322637
-0.65733302	-0.92344701	0.93574500	0.329961
-0.65577698	-0.92128003	0.93592799	0.330938
-0.65400702	-0.91877699	0.93577600	0.328740
-0.65223700	-0.91630602	0.93562299	0.327031
-0.65037501	-0.91365099	0.93531799	0.326055
-0.64848298	-0.91102600	0.93501300	0.329229
-0.64640802	-0.90806597	0.93437201	0.328740
-0.64442402	-0.90528899	0.93388402	0.325322
-0.64222699	-0.90220600	0.93308997	0.321172
-0.64003003	-0.89912403	0.93226600	0.313848
-0.63792402	-0.89619398	0.93159503	0.309209
-0.63639802	-0.89402801	0.93171698	0.311406
-0.63484198	-0.89186102	0.93183899	0.307988
-0.63319403	-0.88954198	0.93177801	0.306767
-0.63154602	-0.88722199	0.93171698	0.308476
-0.62992901	-0.88493299	0.93165600	0.308965
-0.62794501	-0.88215601	0.93110698	0.312383
-0.62620503	-0.87968397	0.93086201	0.309941
-0.62477100	-0.87770098	0.93110698	0.309453
-0.62312299	-0.87538099	0.93101501	0.311650
-0.62147498	-0.87309301	0.93092299	0.319707
-0.62016302	-0.87123102	0.93132001	0.326055
-0.61906397	-0.86967498	0.93202198	0.332647
-0.61784399	-0.86796600	0.93254101	0.335576
-0.61653101	-0.86613500	0.93290699	0.335576
-0.61500502	-0.86396801	0.93296802	0.334844
-0.61323500	-0.86152601	0.93269300	0.338018
-0.61149597	-0.85908502	0.93238801	0.336065
-0.60975599	-0.85664397	0.93208301	0.336797
-0.60835302	-0.85465997	0.93226600	0.340948
-0.60682702	-0.85249299	0.93229699	0.343389
-0.60530102	-0.85035700	0.93229699	0.346563
-0.60368299	-0.84806800	0.93214399	0.344610
-0.60194403	-0.84562701	0.93183899	0.347051
-0.60041797	-0.84349102	0.93180799	0.350713
-0.59901398	-0.84150702	0.93199199	0.354376
-0.59748799	-0.83937103	0.93196100	0.364141
-0.59608501	-0.83738703	0.93211401	0.367315
-0.59443700	-0.83512902	0.93193102	0.367803
-0.59281898	-0.83284003	0.93171698	0.369757
-0.59141499	-0.83085603	0.93186998	0.369757
-0.58991998	-0.82871997	0.93180799	0.372442
-0.58830303	-0.82646197	0.93159503	0.373175
-0.58656299	-0.82405102	0.93122900	0.374884
-0.58485401	-0.82160902	0.93083203	0.374884
-0.58302301	-0.81907701	0.93028301	0.380499
-0.58152801	-0.81694001	0.93022197	0.380987
-0.58000201	-0.81483501	0.93016100	0.378058
-0.57841498	-0.81257600	0.92991602	0.376593
-0.57670599	-0.81016499	0.92948902	0.377325
-0.57530200	-0.80818200	0.92958099	0.380255
-0.57411200	-0.80650300	0.92997700	0.379034
-0.57258600	-0.80439800	0.92988598	0.380987
-0.57118201	-0.80244398	0.92994702	0.385382
-0.56980902	-0.80049098	0.93000799	0.387335
-0.56840497	-0.79850799	0.93006903	0.384161
-0.56700099	-0.79655498	0.93013000	0.384649
-0.56559801	-0.79460102	0.93016100	0.385138
-0.56422400	-0.79264802	0.93022197	0.387091
-0.56272900	-0.79054302	0.93006903	0.385138
-0.56141698	-0.78871202	0.93028301	0.385870
-0.56025702	-0.78706402	0.93064898	0.389044
-0.55894500	-0.78523302	0.93083203	0.400031
-0.55787700	-0.78370702	0.93138099	0.406622
-0.55677801	-0.78218102	0.93190002	0.409796
-0.55549598	-0.78038001	0.93208301	0.410529
-0.55400097	-0.77830499	0.93193102	0.418341
-0.55271900	-0.77647400	0.93208301	0.437140
-0.71781898	-1.00584400	0.93434101	0.228397
-0.71907002	-1.00758398	0.93839997	0.244511
-0.71736097	-1.00520301	0.93864399	0.251591
-0.71556097	-1.00264001	0.93870503	0.257694
-0.71372998	-1.00010705	0.93876600	0.257206
-0.71171600	-0.99726897	0.93852198	0.253544
-0.70921302	-0.99375898	0.93769801	0.254765
-0.70719898	-0.99092102	0.93742400	0.258915
-0.70515400	-0.98808300	0.93717998	0.262577
-0.70314002	-0.98524499	0.93690503	0.264042
-0.70121801	-0.98255903	0.93678302	0.267216
-0.69950902	-0.98017901	0.93693501	0.267704
-0.69737202	-0.97718799	0.93650800	0.269657
-0.69535798	-0.97434998	0.93620300	0.274540
-0.69322199	-0.97135901	0.93574500	0.279667
-0.69120800	-0.96852100	0.93544000	0.284550
-0.68928498	-0.96583599	0.93525702	0.285527
-0.68751502	-0.96333301	0.93522602	0.290898
-0.68571502	-0.96079999	0.93519598	0.293095
-0.68391401	-0.95829803	0.93516499	0.293095
-0.68223602	-0.95594800	0.93528700	0.293095
-0.68077099	-0.95390302	0.93568403	0.302373
-0.67930597	-0.95185900	0.93608099	0.307744
-0.67796302	-0.94996601	0.93663001	0.311650
-0.67640698	-0.94776899	0.93687397	0.310430
-0.67460603	-0.94526702	0.93681300	0.307256
-0.67304999	-0.94306898	0.93705702	0.307256
-0.67137098	-0.94072002	0.93711901	0.311894
-0.66957098	-0.93821698	0.93702698	0.313603
-0.66792297	-0.93589801	0.93708801	0.314580
-0.66612202	-0.93339503	0.93699598	0.314580
-0.66422999	-0.93074000	0.93672198	0.314580
-0.66255200	-0.92839098	0.93675202	0.311162
-0.66069001	-0.92573500	0.93647802	0.315557
-0.65889001	-0.92326403	0.93635601	0.321172
-0.65724200	-0.92091399	0.93638599	0.327031
-0.65535003	-0.91828901	0.93608099	0.328740
-0.65358001	-0.91578698	0.93592799	0.326543
-0.65168798	-0.91316199	0.93562299	0.323125
-0.64991802	-0.91069001	0.93547100	0.326055
-0.64793402	-0.90788299	0.93498200	0.325322
-0.64607197	-0.90525800	0.93467700	0.323125
-0.64387500	-0.90217602	0.93385297	0.318975
-0.64167798	-0.89909399	0.93305999	0.312871
-0.63957202	-0.89616400	0.93238801	0.310430
-0.63792402	-0.89384502	0.93235803	0.309453
-0.63648999	-0.89183003	0.93260199	0.309697
-0.63484198	-0.88954198	0.93257099	0.306767
-0.63307202	-0.88707000	0.93235803	0.307988
-0.63133198	-0.88459802	0.93211401	0.311406
-0.62968397	-0.88227803	0.93205303	0.314580
-0.62770098	-0.87953198	0.93150300	0.312383
-0.62583899	-0.87693799	0.93110698	0.309453
-0.62440503	-0.87492400	0.93135101	0.311162
-0.62275702	-0.87263501	0.93125898	0.317021
-0.62132299	-0.87062103	0.93147302	0.328008
-0.62013203	-0.86891198	0.93202198	0.332647
-0.61903399	-0.86735499	0.93269300	0.333379
-0.61759901	-0.86534101	0.93290699	0.330205
-0.61619598	-0.86335802	0.93312103	0.328496
-0.61463898	-0.86119097	0.93315101	0.329229
-0.61302203	-0.85890198	0.93302900	0.332647
-0.61128199	-0.85646099	0.93275499	0.333135
-0.60963398	-0.85417199	0.93260199	0.339239
-0.60801703	-0.85188299	0.93244898	0.345830
-0.60658300	-0.84989899	0.93263203	0.346319
-0.60496497	-0.84761000	0.93247998	0.349493
-0.60322601	-0.84516901	0.93214399	0.351446
-0.60157800	-0.84288001	0.93199199	0.353155
-0.60017401	-0.84089702	0.93214399	0.355596
-0.59886199	-0.83906603	0.93244898	0.364874
-0.59724402	-0.83677697	0.93226600	0.369757
-0.59559602	-0.83451802	0.93208301	0.370245
-0.59428400	-0.83268702	0.93238801	0.367315
-0.59300202	-0.83085603	0.93269300	0.364874
-0.59147602	-0.82871997	0.93263203	0.364874
-0.58985901	-0.82646197	0.93244898	0.373175
-0.58824199	-0.82417297	0.93223602	0.378790
-0.58671600	-0.82206702	0.93217498	0.378058
-0.58500701	-0.81965601	0.93177801	0.373175
-0.58317602	-0.81709301	0.93122900	0.376104
-0.58155799	-0.81483501	0.93098402	0.376104
-0.57994097	-0.81257600	0.93074000	0.373663
-0.57832301	-0.81031799	0.93049598	0.370489
-0.57682800	-0.80818200	0.93040502	0.366827
-0.57542402	-0.80622900	0.93046600	0.369024
-0.57402003	-0.80427599	0.93055701	0.371466
-0.57270801	-0.80244398	0.93077099	0.378546
-0.57133502	-0.80049098	0.93086201	0.384894
-0.56993097	-0.79850799	0.93089300	0.385382
-0.56852698	-0.79655498	0.93095398	0.381720
-0.56712300	-0.79460102	0.93101501	0.382696
-0.56553602	-0.79234302	0.93071002	0.382696
-0.56413299	-0.79039001	0.93074000	0.383917
-0.56272900	-0.78843701	0.93080097	0.386603
-0.56132501	-0.78648400	0.93083203	0.388556
-0.56013501	-0.78483599	0.93119800	0.390509
-0.55894500	-0.78315699	0.93153399	0.401495
-0.55766302	-0.78135699	0.93171698	0.406622
-0.55647302	-0.77967799	0.93208301	0.407843
-0.55519098	-0.77787799	0.93226600	0.410529
-0.55400097	-0.77622998	0.93260199	0.422980
-0.72090101	-1.00746202	0.93672198	0.233524
-0.71989399	-1.00602698	0.93782002	0.244999
-0.71794099	-1.00334203	0.93775898	0.255009
-0.71601897	-1.00065601	0.93766803	0.255985
-0.71397400	-0.99778700	0.93742400	0.254520
-0.71192902	-0.99494898	0.93717998	0.253056
-0.70979297	-0.99192798	0.93678302	0.255985
-0.70774800	-0.98909003	0.93653899	0.258427
-0.70573401	-0.98625201	0.93626398	0.260136
-0.70368999	-0.98341399	0.93602002	0.263554
-0.70167500	-0.98057598	0.93571502	0.264530
-0.69950902	-0.97758502	0.93528700	0.267216
-0.69761699	-0.97489899	0.93513501	0.271855
-0.69590801	-0.97251898	0.93528700	0.279667
-0.69401598	-0.96986401	0.93513501	0.282841
-0.69175702	-0.96672100	0.93452501	0.285039
-0.68983501	-0.96403497	0.93437201	0.289433
-0.68815601	-0.96168500	0.93449402	0.290898
-0.68635601	-0.95918298	0.93446398	0.290898
-0.68479902	-0.95698500	0.93470800	0.292119
-0.68333399	-0.95494097	0.93513501	0.298466
-0.68196100	-0.95304900	0.93568403	0.309453
-0.68061799	-0.95115697	0.93623400	0.312139
-0.67881799	-0.94865400	0.93617201	0.308965
-0.67692602	-0.94599903	0.93595898	0.304082
-0.67524701	-0.94364899	0.93605000	0.301396
-0.67356902	-0.94129902	0.93611097	0.304326
-0.67189002	-0.93895000	0.93620300	0.307012
-0.67021197	-0.93663001	0.93626398	0.311406
-0.66853303	-0.93427998	0.93632501	0.313603
-0.66676301	-0.93177801	0.93620300	0.315557
-0.66487098	-0.92912298	0.93595898	0.314092
-0.66297901	-0.92649800	0.93568403	0.315068
-0.66096503	-0.92369097	0.93525702	0.319463
-0.65907300	-0.92106599	0.93495202	0.327276
-0.65730298	-0.91856402	0.93483001	0.328252
-0.65562397	-0.91624498	0.93483001	0.327764
-0.65397602	-0.91389501	0.93485999	0.324346
-0.65229797	-0.91157502	0.93485999	0.325567
-0.65052801	-0.90910298	0.93467700	0.323125
-0.64833099	-0.90602100	0.93391401	0.325567
-0.64610302	-0.90293902	0.93308997	0.323857
-0.64402801	-0.90000898	0.93244898	0.317998
-0.64213598	-0.89738500	0.93211401	0.308721
-0.64048803	-0.89506501	0.93208301	0.303593
-0.63871801	-0.89259303	0.93186998	0.304570
-0.63673401	-0.88981599	0.93135101	0.303838
-0.63487202	-0.88722199	0.93098402	0.306279
-0.63331598	-0.88505602	0.93107599	0.309209
-0.63178998	-0.88288897	0.93116802	0.310185
-0.63023400	-0.88075298	0.93125898	0.312871
-0.62846398	-0.87831098	0.93101501	0.309941
-0.62672400	-0.87583899	0.93080097	0.308232
-0.62495399	-0.87339801	0.93052697	0.309941
-0.62352002	-0.87138402	0.93077099	0.317998
-0.62220800	-0.86955303	0.93113703	0.324346
-0.62098700	-0.86784399	0.93168598	0.328496
-0.61976600	-0.86613500	0.93223602	0.330938
-0.61836201	-0.86415100	0.93244898	0.331426
-0.61680597	-0.86198401	0.93247998	0.330449
-0.61518902	-0.85969502	0.93235803	0.335576
-0.61354101	-0.85740697	0.93223602	0.339239
-0.61158800	-0.85469103	0.93159503	0.346319
-0.61006200	-0.85252398	0.93162501	0.352911
-0.60850501	-0.85038799	0.93165600	0.352422
-0.60697901	-0.84825099	0.93165600	0.354376
-0.60536200	-0.84599298	0.93150300	0.355596
-0.60392803	-0.84397900	0.93165600	0.358770
-0.60218799	-0.84156799	0.93132001	0.360967
-0.60057098	-0.83927900	0.93116802	0.367315
-0.59913599	-0.83729601	0.93132001	0.369757
-0.59773302	-0.83531201	0.93144202	0.370977
-0.59632897	-0.83332801	0.93159503	0.372198
-0.59468102	-0.83107001	0.93141198	0.371710
-0.59327698	-0.82908601	0.93153399	0.369757
-0.59166002	-0.82682800	0.93132001	0.374395
-0.59034699	-0.82499701	0.93159503	0.375128
-0.58882099	-0.82286102	0.93156397	0.375860
-0.58699000	-0.82032800	0.93101501	0.378790
-0.58546400	-0.81819201	0.93095398	0.379522
-0.58366400	-0.81565899	0.93037403	0.379278
-0.58204699	-0.81336999	0.93016100	0.371710
-0.58021498	-0.81083697	0.92958099	0.365606
-0.57881200	-0.80888402	0.92964202	0.365606
-0.57740802	-0.80690002	0.92973298	0.374640
-0.57578999	-0.80464202	0.92948902	0.378546
-0.57447797	-0.80284101	0.92970300	0.380987
-0.57319599	-0.80101001	0.92994702	0.382208
-0.57179302	-0.79905701	0.93000799	0.380987
-0.57017499	-0.79682899	0.92973298	0.380499
-0.56877100	-0.79484600	0.92979401	0.383429
-0.56736797	-0.79289198	0.92982501	0.380743
-0.56608599	-0.79109198	0.93003798	0.380255
-0.56468201	-0.78913897	0.93006903	0.378302
-0.56339997	-0.78733802	0.93028301	0.378302
-0.56208801	-0.78550702	0.93046600	0.380743
-0.56089801	-0.78385901	0.93083203	0.392462
-0.55983001	-0.78233302	0.93138099	0.402228
-0.55842602	-0.78038001	0.93138099	0.410040
-0.55711401	-0.77858001	0.93156397	0.415167
-0.55574000	-0.77662700	0.93159503	0.420294
-0.55454999	-0.77497900	0.93193102	0.430060
-0.72022998	-1.00389099	0.93418902	0.219608
-0.72145098	-1.00563002	0.93824798	0.237919
-0.71986401	-1.00340295	0.93864399	0.249638
-0.71815503	-1.00102198	0.93885797	0.258671
-0.71610999	-0.99818403	0.93861401	0.256718
-0.71385199	-0.99501002	0.93809497	0.253056
-0.71156299	-0.99186701	0.93754601	0.255985
-0.70930499	-0.98869300	0.93699598	0.258427
-0.70692402	-0.98536700	0.93626398	0.260136
-0.70500201	-0.98271197	0.93614203	0.265019
-0.70307899	-0.98002601	0.93602002	0.264530
-0.70082098	-0.97688299	0.93544000	0.264530
-0.69902003	-0.97434998	0.93544000	0.270390
-0.69709802	-0.97169501	0.93528700	0.281865
-0.69529700	-0.96916199	0.93528700	0.286748
-0.69349700	-0.96666002	0.93528700	0.286259
-0.69157398	-0.96397400	0.93510401	0.289921
-0.68965101	-0.96131903	0.93495202	0.299199
-0.68785101	-0.95881701	0.93492103	0.300664
-0.68629497	-0.95658898	0.93516499	0.297978
-0.68470800	-0.95442200	0.93544000	0.298466
-0.68324298	-0.95237702	0.93583697	0.305791
-0.68177801	-0.95033300	0.93623400	0.309453
-0.68031299	-0.94828802	0.93663001	0.307988
-0.67875701	-0.94609100	0.93687397	0.303105
-0.67695600	-0.94358802	0.93681300	0.299931
-0.67506403	-0.94093299	0.93656898	0.306523
-0.67314100	-0.93827802	0.93635601	0.312139
-0.67137098	-0.93580598	0.93626398	0.314824
-0.66978502	-0.93360901	0.93647802	0.314336
-0.66810602	-0.93125898	0.93650800	0.312627
-0.66621399	-0.92863500	0.93626398	0.315801
-0.66432202	-0.92597997	0.93598902	0.315801
-0.66252100	-0.92350799	0.93586701	0.316289
-0.66087300	-0.92115802	0.93589801	0.318486
-0.65907300	-0.91868597	0.93574500	0.325567
-0.65742499	-0.91633600	0.93577600	0.324346
-0.65562397	-0.91386402	0.93562299	0.321172
-0.65385401	-0.91139197	0.93547100	0.321660
-0.65187103	-0.90861499	0.93501300	0.327276
-0.64964300	-0.90553302	0.93421900	0.325078
-0.64775097	-0.90290803	0.93388402	0.322148
-0.64564502	-0.89997900	0.93324298	0.320928
-0.64366102	-0.89720201	0.93272400	0.316289
-0.64167798	-0.89442402	0.93223602	0.311162
-0.63981599	-0.89183003	0.93186998	0.309209
-0.63813800	-0.88951099	0.93180799	0.305791
-0.63648999	-0.88719201	0.93177801	0.305058
-0.63472003	-0.88475001	0.93156397	0.307500
-0.63319403	-0.88258398	0.93165600	0.312139
-0.63133198	-0.87995899	0.93125898	0.317021
-0.62968397	-0.87764001	0.93119800	0.312383
-0.62803602	-0.87535101	0.93110698	0.307744
-0.62651098	-0.87321502	0.93116802	0.307744
-0.62495399	-0.87104797	0.93125898	0.309453
-0.62352002	-0.86906397	0.93147302	0.318730
-0.62208599	-0.86704999	0.93168598	0.328008
-0.62055999	-0.86491400	0.93174702	0.333379
-0.61921698	-0.86308300	0.93211401	0.333867
-0.61790502	-0.86122102	0.93247998	0.332158
-0.61656201	-0.85939002	0.93284601	0.330449
-0.61503601	-0.85722399	0.93287700	0.336309
-0.61296099	-0.85435498	0.93208301	0.342412
-0.61134303	-0.85206598	0.93196100	0.345342
-0.60969502	-0.84977698	0.93180799	0.343633
-0.60826099	-0.84779400	0.93199199	0.349737
-0.60673499	-0.84565699	0.93199199	0.356329
-0.60520899	-0.84352100	0.93199199	0.359258
-0.60377502	-0.84153700	0.93214399	0.357549
-0.60224903	-0.83940101	0.93214399	0.355596
-0.60084498	-0.83741802	0.93229699	0.361944
-0.59919697	-0.83515900	0.93211401	0.368048
-0.59779400	-0.83317602	0.93223602	0.372930
-0.59635901	-0.83119202	0.93238801	0.374640
-0.59495503	-0.82920802	0.93251002	0.371710
-0.59352100	-0.82725501	0.93263203	0.369757
-0.59199500	-0.82511902	0.93260199	0.372686
-0.59028602	-0.82270801	0.93223602	0.371466
-0.58845502	-0.82014501	0.93165600	0.374640
-0.58662403	-0.81761199	0.93110698	0.380743
-0.58479297	-0.81504798	0.93055701	0.385626
-0.58317602	-0.81278998	0.93031299	0.381964
-0.58165002	-0.81068403	0.93025202	0.375128
-0.58033800	-0.80885297	0.93049598	0.368048
-0.57893401	-0.80690002	0.93055701	0.366827
-0.57731599	-0.80464202	0.93031299	0.374151
-0.57560700	-0.80226099	0.92988598	0.375372
-0.57429498	-0.80043000	0.93009901	0.378058
-0.57310498	-0.79878199	0.93052697	0.379767
-0.57179302	-0.79695100	0.93074000	0.378546
-0.57038897	-0.79499799	0.93080097	0.376593
-0.56889302	-0.79289198	0.93067902	0.380255
-0.56727600	-0.79066497	0.93037403	0.381476
-0.56599402	-0.78886402	0.93058801	0.380255
-0.56468201	-0.78703302	0.93080097	0.379034
-0.56339997	-0.78523302	0.93098402	0.379522
-0.56230199	-0.78370702	0.93153399	0.387335
-0.56089801	-0.78175402	0.93153399	0.402228
-0.55961603	-0.77995300	0.93171698	0.408087
-0.55830401	-0.77815199	0.93190002	0.411994
-0.55690002	-0.77619898	0.93193102	0.416632
-0.55561799	-0.77439898	0.93208301	0.424445
-0.55442798	-0.77275097	0.93244898	0.439338
-0.72227502	-1.00407398	0.93766803	0.234989
-0.72102398	-1.00233495	0.93849200	0.244755
-0.71919298	-0.99980199	0.93855298	0.249638
-0.71760601	-0.99757397	0.93891901	0.250126
-0.71543902	-0.99458301	0.93852198	0.248417
-0.71315002	-0.99144000	0.93797302	0.251347
-0.71101397	-0.98841900	0.93757600	0.251835
-0.70906103	-0.98576403	0.93745399	0.251347
-0.70713800	-0.98307800	0.93736303	0.253300
-0.70475799	-0.97975200	0.93663001	0.258915
-0.70274401	-0.97694403	0.93635601	0.259892
-0.70091200	-0.97441101	0.93635601	0.264775
-0.69898999	-0.97172499	0.93620300	0.277226
-0.69706702	-0.96907002	0.93605000	0.283085
-0.69505298	-0.96623200	0.93574500	0.284550
-0.69316101	-0.96354699	0.93556201	0.285283
-0.69123799	-0.96089202	0.93537903	0.290166
-0.68919402	-0.95808399	0.93504298	0.293339
-0.68730199	-0.95539898	0.93485999	0.296025
-0.68571502	-0.95320100	0.93513501	0.296025
-0.68470800	-0.95179701	0.93614203	0.296513
-0.68345600	-0.95005798	0.93684399	0.303593
-0.68186998	-0.94786102	0.93708801	0.309209
-0.68006903	-0.94538897	0.93702698	0.310674
-0.67826802	-0.94288599	0.93696600	0.305303
-0.67649800	-0.94038397	0.93687397	0.304570
-0.67457598	-0.93772900	0.93666101	0.307744
-0.67289698	-0.93537903	0.93672198	0.310918
-0.67134100	-0.93321198	0.93693501	0.312139
-0.66975403	-0.93101501	0.93714899	0.312139
-0.66795301	-0.92854297	0.93702698	0.314824
-0.66618299	-0.92604101	0.93690503	0.314824
-0.66450500	-0.92372102	0.93693501	0.315801
-0.66258198	-0.92106599	0.93666101	0.317510
-0.66069001	-0.91844201	0.93638599	0.324590
-0.65891999	-0.91597003	0.93623400	0.326787
-0.65711999	-0.91346699	0.93611097	0.323857
-0.65522802	-0.91084301	0.93577600	0.319463
-0.65336603	-0.90821803	0.93547100	0.321660
-0.65126002	-0.90528899	0.93483001	0.323369
-0.64936799	-0.90266401	0.93452501	0.322881
-0.64726299	-0.89973402	0.93385297	0.322148
-0.64527899	-0.89698797	0.93336499	0.315801
-0.64317298	-0.89405799	0.93269300	0.307744
-0.64128101	-0.89143401	0.93235803	0.301640
-0.63941997	-0.88884002	0.93199199	0.300664
-0.63765001	-0.88636798	0.93177801	0.300664
-0.63609302	-0.88423198	0.93186998	0.302861
-0.63465899	-0.88221699	0.93211401	0.308232
-0.63297999	-0.87989801	0.93205303	0.314336
-0.63133198	-0.87760901	0.93199199	0.310674
-0.62968397	-0.87532002	0.93190002	0.307744
-0.62782300	-0.87269598	0.93150300	0.307256
-0.62614399	-0.87040699	0.93141198	0.311406
-0.62483197	-0.86857599	0.93177801	0.321172
-0.62339801	-0.86656201	0.93202198	0.327520
-0.62196398	-0.86457801	0.93223602	0.331182
-0.62062103	-0.86274701	0.93260199	0.330449
-0.61930799	-0.86088598	0.93296802	0.328252
-0.61766100	-0.85859698	0.93284601	0.328252
-0.61610401	-0.85646099	0.93287700	0.332891
-0.61436498	-0.85401899	0.93257099	0.335821
-0.61283898	-0.85188299	0.93260199	0.342412
-0.61119097	-0.84959400	0.93244898	0.345342
-0.60954303	-0.84733599	0.93229699	0.347295
-0.60810900	-0.84535199	0.93247998	0.348028
-0.60658300	-0.84321600	0.93247998	0.349737
-0.60505700	-0.84108001	0.93247998	0.355108
-0.60362202	-0.83909601	0.93263203	0.358770
-0.60231000	-0.83726501	0.93293798	0.357061
-0.60087597	-0.83528101	0.93308997	0.360723
-0.59934998	-0.83314502	0.93305999	0.363897
-0.59782398	-0.83103901	0.93302900	0.365606
-0.59651202	-0.82920802	0.93333399	0.364385
-0.59498602	-0.82707202	0.93330401	0.363165
-0.59324598	-0.82466102	0.93293798	0.372930
-0.59150702	-0.82225001	0.93254101	0.374640
-0.59010297	-0.82029700	0.93266302	0.373419
-0.58857697	-0.81816101	0.93260199	0.372198
-0.58683801	-0.81578100	0.93220502	0.369757
-0.58482403	-0.81294298	0.93132001	0.371221
-0.58299297	-0.81037903	0.93074000	0.370001
-0.58134502	-0.80815101	0.93049598	0.365606
-0.58015400	-0.80647302	0.93089300	0.362432
-0.57884198	-0.80464202	0.93113703	0.363165
-0.57743800	-0.80268902	0.93122900	0.369757
-0.57572901	-0.80030799	0.93077099	0.373663
-0.57441700	-0.79847699	0.93101501	0.379278
-0.57279998	-0.79624897	0.93074000	0.383673
-0.57139599	-0.79429603	0.93080097	0.381231
-0.56990099	-0.79219103	0.93067902	0.381720
-0.56849700	-0.79023701	0.93071002	0.380255
-0.56718397	-0.78843701	0.93092299	0.381720
-0.56578100	-0.78648400	0.93095398	0.382208
-0.56437701	-0.78453100	0.93098402	0.385626
-0.56306499	-0.78272998	0.93119800	0.390021
-0.56196600	-0.78120399	0.93171698	0.401740
-0.56059301	-0.77925098	0.93171698	0.408087
-0.55937201	-0.77760297	0.93208301	0.410773
-0.55787700	-0.77552801	0.93193102	0.413458
-0.55647302	-0.77357501	0.93193102	0.419806
-0.55528301	-0.77192700	0.93226600	0.429084
-0.72230500	-1.00141895	0.93360901	0.224491
-0.72355700	-1.00315905	0.93766803	0.241093
-0.72172499	-1.00062597	0.93775898	0.250614
-0.71989399	-0.99809301	0.93782002	0.254276
-0.71785003	-0.99525499	0.93757600	0.252567
-0.71580499	-0.99241602	0.93733197	0.250614
-0.71354699	-0.98924297	0.93678302	0.252811
-0.71150202	-0.98640400	0.93653899	0.254520
-0.70942700	-0.98359698	0.93626398	0.258183
-0.70750397	-0.98091102	0.93614203	0.264286
-0.70533800	-0.97792101	0.93571502	0.263066
-0.70332301	-0.97508198	0.93544000	0.262089
-0.70149201	-0.97258002	0.93544000	0.266239
-0.69957000	-0.96989399	0.93528700	0.276738
-0.69752502	-0.96708697	0.93498200	0.283574
-0.69572401	-0.96455401	0.93498200	0.286748
-0.69380200	-0.96189898	0.93479902	0.286748
-0.69169599	-0.95890802	0.93434101	0.292851
-0.68943799	-0.95579499	0.93370098	0.296513
-0.68785101	-0.95359802	0.93394500	0.296025
-0.68650800	-0.95170599	0.93452501	0.297002
-0.68504298	-0.94969201	0.93492103	0.305303
-0.68366998	-0.94779998	0.93547100	0.310185
-0.68208301	-0.94560200	0.93571502	0.312871
-0.68052697	-0.94340497	0.93595898	0.311406
-0.67881799	-0.94108599	0.93605000	0.304326
-0.67735302	-0.93904102	0.93641698	0.301885
-0.67567402	-0.93669099	0.93650800	0.301885
-0.67378199	-0.93406701	0.93626398	0.303838
-0.67198199	-0.93156397	0.93617201	0.306767
-0.67018098	-0.92909199	0.93605000	0.313115
-0.66828901	-0.92643702	0.93580598	0.311894
-0.66648901	-0.92396498	0.93568403	0.310430
-0.66468799	-0.92149401	0.93556201	0.312627
-0.66288799	-0.91899103	0.93544000	0.320195
-0.66111797	-0.91651899	0.93528700	0.325567
-0.65922499	-0.91389501	0.93498200	0.326787
-0.65754700	-0.91157502	0.93501300	0.321172
-0.65565503	-0.90895098	0.93470800	0.321172
-0.65376300	-0.90632600	0.93437201	0.322148
-0.65165699	-0.90339702	0.93373102	0.325567
-0.64942902	-0.90031397	0.93293798	0.327276
-0.64744598	-0.89753699	0.93244898	0.326543
-0.64555401	-0.89494300	0.93211401	0.317021
-0.64378399	-0.89247102	0.93190002	0.306035
-0.64210498	-0.89015198	0.93186998	0.304814
-0.64033502	-0.88771099	0.93165600	0.304814
-0.63844299	-0.88511699	0.93128997	0.308232
-0.63658100	-0.88249201	0.93092299	0.311650
-0.63481098	-0.88005102	0.93071002	0.315557
-0.63316298	-0.87773103	0.93061799	0.312627
-0.63139302	-0.87528998	0.93040502	0.313115
-0.62983698	-0.87315398	0.93046600	0.314824
-0.62818903	-0.87086499	0.93037403	0.315557
-0.62663299	-0.86869800	0.93043500	0.318242
-0.62519801	-0.86671400	0.93067902	0.320439
-0.62397802	-0.86503601	0.93119800	0.323369
-0.62275702	-0.86332703	0.93174702	0.325811
-0.62141401	-0.86149597	0.93211401	0.329961
-0.61976600	-0.85920697	0.93199199	0.334112
-0.61811799	-0.85691798	0.93186998	0.338262
-0.61625701	-0.85432398	0.93141198	0.339483
-0.61473101	-0.85218799	0.93144202	0.346075
-0.61317402	-0.85005200	0.93147302	0.355596
-0.61186200	-0.84822100	0.93180799	0.358526
-0.61042798	-0.84623700	0.93199199	0.357549
-0.60899401	-0.84425402	0.93214399	0.352911
-0.60768098	-0.84242201	0.93247998	0.350469
-0.60624701	-0.84043902	0.93263203	0.350958
-0.60459900	-0.83818102	0.93247998	0.355840
-0.60295099	-0.83589202	0.93229699	0.362676
-0.60121202	-0.83348101	0.93193102	0.363897
-0.59968603	-0.83137500	0.93193102	0.365606
-0.59806800	-0.82908601	0.93171698	0.364385
-0.59663397	-0.82713300	0.93186998	0.365118
-0.59510797	-0.82499701	0.93180799	0.375860
-0.59346002	-0.82273901	0.93159503	0.379767
-0.59205598	-0.82078600	0.93171698	0.375860
-0.59052998	-0.81864899	0.93165600	0.371710
-0.58891302	-0.81639099	0.93144202	0.369024
-0.58717299	-0.81401098	0.93104601	0.373175
-0.58534199	-0.81144702	0.93046600	0.370001
-0.58360302	-0.80906701	0.93006903	0.368292
-0.58219898	-0.80708301	0.93016100	0.368292
-0.58088702	-0.80528301	0.93040502	0.367071
-0.57936102	-0.80317700	0.93031299	0.370489
-0.57783502	-0.80107099	0.93022197	0.372442
-0.57655299	-0.79927099	0.93043500	0.377325
-0.57511902	-0.79731798	0.93052697	0.382452
-0.57350200	-0.79505903	0.93022197	0.381964
-0.57191497	-0.79283100	0.92994702	0.383673
-0.57038897	-0.79072601	0.92982501	0.382452
-0.56907701	-0.78892499	0.93003798	0.382940
-0.56767303	-0.78697199	0.93006903	0.384894
-0.56639099	-0.78517199	0.93028301	0.389532
-0.56529200	-0.78364599	0.93083203	0.393194
-0.56397998	-0.78184497	0.93101501	0.397833
-0.56269801	-0.78004497	0.93119800	0.407599
-0.56129497	-0.77812201	0.93122900	0.410285
-0.55998200	-0.77632099	0.93141198	0.413458
-0.55857801	-0.77436799	0.93141198	0.417365
-0.55729699	-0.77256799	0.93159503	0.424445
-0.55607599	-0.77091998	0.93193102	0.436164
-0.72471601	-1.00208998	0.93751502	0.233524
-0.72355700	-1.00050402	0.93849200	0.244266
-0.72151202	-0.99766499	0.93824798	0.254276
-0.71968102	-0.99513203	0.93830901	0.258915
-0.71760601	-0.99229401	0.93809497	0.257694
